# 3D point list with one line of data per point:
#   POINT3D_ID, X, Y, Z, R, G, B, ERROR, TRACK[] as (IMAGE_ID, POINT2D_IDX)
# Number of points: 390, mean track length: 6.3195526695526691
17316 1.2395939054197413 0.85768304854041177 3.8670158167626907 139 96 41 2.0262776838011951 75 817 79 852 98 562
16437 -1.5896043577366772 0.21063978686660353 3.3679043285752308 123 84 43 0.53147752681820726 95 399 82 851
18128 -1.939680740128942 -0.13600890084020312 3.1500191753980742 117 95 56 1.5417081195304858 77 811 102 786
17825 3.1316596786325546 6.3354871980466347 -4.7195724401436419 85 84 79 0.73207847976574003 84 532 100 528 98 397
16438 -1.7862203421425065 0.063799875861064212 3.2924304520274794 151 104 50 0.47087858995293003 99 583 95 401 77 404
20390 -0.21307723957939104 1.7381576601759292 0.84108428449386097 114 129 129 0.53699999792701825 125 379 128 200 123 327
19153 -7.079177054882126 6.5478213533310239 1.0561830355184023 203 202 184 0.48564041842712374 115 119 116 124 113 135
16439 -2.1059731152055545 -0.12798015403577886 3.1598192694256788 130 87 36 0.66001489047183604 99 590 95 405 77 510
19883 -0.1099392539985387 0.099130538748691446 2.6177857482503133 91 92 96 1.1478881286480875 120 220 109 216 106 176 114 148
19162 -5.6504671436543612 8.9707285119727231 0.28685315407179907 118 119 101 0.10541013999439963 115 192 116 156
16440 -2.0336103948545508 -0.060736019554870534 3.2005439784812135 135 92 41 0.98765040221551759 99 480 95 407 77 400
16441 -2.321657388800479 -0.24743868437053768 3.0707338502257313 211 173 137 0.83937645564858154 99 593 95 408 77 399
18346 0.87879463599235919 -0.41603929983689009 3.2536893452960158 113 101 87 2.9066943289013025 82 864 108 532
16443 5.4117475962475297 3.1446048572104237 0.67370679090554064 64 62 97 0.54809460962467582 99 280 95 421 77 368 78 375 93 407 75 432 79 436 82 406 84 461 86 432 100 385
16444 6.18711782630443 3.1642516105048153 1.1904018449736109 79 79 107 1.0586619324505147 99 285 95 423 77 257 78 256 93 272 75 220 79 244 82 156 84 176
18143 -0.81269483872844228 0.26510108841904989 1.9537104944739132 231 188 126 0.74347612097742988 98 229 102 297
17324 0.086411321501613805 0.65953107319458537 3.5007204384607071 128 81 29 1.7665943608229167 75 877 79 897
16445 7.4178388622348423 5.6653008435193062 -1.6673381786642902 158 136 125 0.8315247957237043 90 408 99 463 95 426
16447 5.8348294522813076 5.1151546353355881 -1.0416482435253427 182 148 121 1.5303786392523233 90 418 99 456 95 433 77 535 68 210
16448 4.872817251414574 4.2312927375448481 -0.16476241056417507 182 159 149 0.73908857524238325 99 452 95 434 77 390 78 522
17392 4.2034269692931234 2.0684161312187386 2.1329544289319458 234 184 218 0.34693322044022323 79 300 82 430 84 320 86 262
16449 3.4423885940106143 1.8051243116203952 3.5243447974654694 230 182 128 0.083435635355822491 99 514 77 245
18418 0.022017720596126604 0.56945048652757047 2.9204865502476287 18 29 25 2.1855027517904775 92 264 94 251
16451 -0.7227164141454161 0.37700277162762669 1.8372625499690141 5 17 43 0.3938471871028455 99 510 95 454
17911 -0.081850445796606566 0.2184045052880893 2.8206174243584621 52 54 51 1.9019335273836042 100 10 98 7 102 15
16452 -0.59678817884478741 0.086676052600489661 2.6672330901986232 0 0 0 1.0233648300275013 80 602 88 738
17396 0.53852933588978513 0.47751369947453326 3.6615781091242656 132 163 141 1.261771018965387 82 471 86 327
16453 -0.86563974661721577 1.0632889761847271 1.4241537337649113 5 27 24 1.3357657112094135 99 718 95 462 77 355 71 687 78 546 93 245 93 458 82 159
17905 1.5787876765026552 0.75517267353391515 3.9253257412108931 95 56 15 0.30752268701449337 84 502 98 473
16454 -0.80865632200501236 -0.010340359659720067 2.6876854971967621 48 52 53 0.86302398605361841 99 521 95 464 77 558 78 547 93 358
20470 -0.98949034101409372 2.6367832514845699 -0.78762936038682652 227 182 123 0.37752128830130549 128 344 126 317 119 263 132 267
16455 -0.92532298625748244 0.055325337108873038 2.733222471371048 27 33 33 1.6871031540055434 80 1059 95 465 93 551 75 550 77 654
19963 -2.3992931584571409 -0.2444320254324292 3.0988193685057399 72 43 27 1.5225475639793113 109 23 118 39 106 45 114 46
16456 2.3551355432618331 1.274603078760616 3.3123358264199529 129 149 135 0.017360436082369757 99 596 95 470
16458 -1.9900978689000204 0.5244104470498453 1.9049174122755801 80 113 105 0.84626875605246887 90 529 77 578 78 348
18426 3.9936703503743676 4.4078031288083332 -0.76583202791008342 107 94 101 1.8497975203268595 100 606 89 309 92 336
16459 -2.0063645027562198 0.34460089592601595 2.2284066555731274 80 110 103 0.11245768258821209 68 381 88 407
16460 -2.0331446975487633 0.31092518960959054 2.2981504639518535 117 141 124 0.65746808850981431 90 505 95 490
17404 -1.2351318014257422 -0.081676797200644219 3.3448219927746226 121 160 142 2.3859637927981807 93 378 82 524
16461 -2.1705052725320035 0.34597309481894406 2.1808474426957307 191 136 72 0.39563988307396758 99 615 95 493 77 597 78 646
16462 -0.81197200315344797 0.30995547613338009 3.4601572775630403 182 137 72 0.32334893999121028 99 538 95 496 78 329 93 381 82 460
17185 1.271138043616495 1.5641508729200242 4.4080475511522863 0 0 0 2.3752512881621533 77 162 78 428
16464 -1.5382897594838991 0.039898214903190114 3.2860711968503282 176 133 80 0.056859855421010422 99 569 95 515
19917 -0.24772627176092218 1.2935907038615155 1.5412623747395671 57 69 65 1.2362820323208592 110 77 118 63 106 70 104 42
18211 1.1410416385439883 0.79713447385394942 3.8391999663281018 150 95 49 0.14523974046924118 102 521 103 421 108 368
16466 -1.1254394094691798 0.20739742528675614 3.4116869177329607 194 146 82 0.54061224962798637 99 761 95 527 77 464 78 421
18370 -0.5207329633497666 0.33824852093338714 3.3755693723241098 92 61 33 0.14759726592647221 102 662 108 704
16467 -2.4710569754296063 0.13747743808186236 2.2355496222820204 29 30 39 0.95706285726502338 71 175 95 529
17863 5.3723026871930131 6.7933581154847467 -4.4077619187598955 60 50 38 1.7048219215256843 84 919 86 640 100 697
17189 -0.23091743634848486 0.27268022689155624 3.5704883438359092 121 78 30 0.29439913364474241 77 1006 79 593
16468 -1.8938770869815136 -0.077158116404154292 3.2056836046032595 125 83 35 2.0242284333848506 99 579 95 537 82 488 84 351
20263 -0.22238566595924075 0.04796202795912094 3.0401397852961232 92 80 70 1.1064702999104907 117 279 125 324
17857 3.9595070395560321 1.3584122556685256 1.9806379806951369 174 160 151 0.032892736357204286 84 808 100 668
16470 -1.8243360763118854 0.037783549896466158 3.2743211285730198 167 124 71 0.60434466574707302 99 585 95 539 77 499 82 498
20422 -0.27490896588872327 0.75373778878645592 1.5186123234861604 30 32 32 1.3917358533719768 128 37 118 76 106 66 126 76 119 73
17700 3.9452922190846267 2.2969054033727194 1.7594228207888745 190 165 158 0.14809034711123778 84 869 100 866
16471 -2.3212814864084281 -0.20728199356118782 2.9583704935945345 227 167 115 2.3770961090232849 99 588 95 542 77 500
19915 -0.41375283129397089 1.3786370843539804 1.3194408070223278 8 19 16 1.0049855057756067 110 64 118 34 106 29 114 21 122 20 117 25 104 38 124 18 125 24 128 20
17193 -0.41102981441417652 0.07826354303999386 3.5303508182266228 120 160 149 2.9387277865455173 90 491 75 593
16472 -1.8126620202574557 0.11579288583930207 3.2731901049545282 134 91 40 1.9564396518332106 99 654 77 682
17710 3.9080973066428024 2.8630868367101261 0.55506660236598426 189 175 162 2.0857372843639426 78 926 82 865 84 718 86 705
17352 10.315954619436129 5.2086587063874976 -1.1629080205768163 188 178 165 1.1146879129838785 75 70 79 66 82 51
16473 -1.8838237577063235 0.061491733259559055 3.2672379176372472 131 88 37 1.561821626132083 90 546 95 544 77 509
16474 -2.1004853282481672 0.16295958426640114 2.2025669942206632 79 111 99 0.8755717514716449 88 522 95 551
18378 0.15088503502424669 6.2881270645458995 0.72866314201813942 132 91 45 1.9038430432419231 102 81 108 103
16475 4.433940377853391 2.6821724484136906 1.0206066119789796 78 72 106 1.233658595303128 99 606 95 557 77 529 78 512 93 312 75 442 79 446 82 420 84 395 86 237 100 256
17871 4.1483631127936889 2.3750797422322107 1.5590410150973975 91 77 114 1.5765973753103761 84 864 86 714 100 717
17197 -0.35974073206622603 0.2812250433127107 2.9389926580134329 98 102 103 1.4594830117771256 75 8 82 11 84 6 86 12
16476 5.8776031982822943 2.4271504991956436 2.513540895538839 89 82 105 1.7833960123955996 71 423 90 438 99 487 95 561 77 533 78 577 93 434
17356 0.98758606760489698 4.0178877761013299 -2.5749675547286479 39 39 33 2.2274970163339454 79 85 82 71
16477 7.0595614157490951 7.2929801947757467 -3.7740190387305113 123 103 94 1.5403318279875868 71 223 95 562 79 728
17865 5.2855909455690453 6.6180728094805472 -4.1445102828656939 56 43 29 1.0800981875782958 84 711 86 631 100 701
16478 -1.9506808033858734 0.99784296781644588 1.226652726446797 84 71 36 0.77024578810324251 99 686 77 666 71 584 78 621
17708 5.2372951143277495 2.9273687377197777 1.0342971901001561 123 111 129 0.23656529706446097 84 704 86 700 100 702
16479 -0.46661095220130117 0.14174915318869727 3.4862898267516464 107 159 146 0.98277241305841778 99 678 95 575 93 583 82 780
17296 -0.35166647529330597 -0.090384391260431463 2.5964018351532303 95 101 99 1.1449849980638189 75 703 79 717 82 833 98 528 103 489 108 554
16481 -0.86142127170953575 0.18033805224227747 3.3976480546199959 131 112 70 2.1166311869600616 99 666 95 592
19869 -0.018068954602721538 0.14681384411332057 2.7410376640748488 46 47 51 1.3917868020797903 120 300 109 143 118 118 122 72
16482 -0.8258202279078698 0.23828192316795366 3.4308570043632507 156 104 44 0.96130050651642873 99 664 95 597 82 326 79 501 100 288 98 299 102 323
18322 2.354162857314742 1.8291518244640024 2.2817624586273659 0 0 0 0.27512279923735339 98 618 100 578
16483 -2.5613534128790603 0.37542069754215412 1.8502629249252491 218 171 117 0.0034929652500028034 99 894 95 604
17815 1.0121263564570906 3.8733094433465611 -2.2450774411592507 48 40 29 1.7320076429724982 84 868 100 455 98 359 102 296
16484 -1.2747676149410958 0.24278124214105753 3.3712602382374532 155 113 55 2.1058324150954877 95 627 77 830 79 552 93 761
17300 -0.59765373074521955 0.38544580431832276 3.526572249167907 198 145 79 1.1055719147997882 93 604 79 739 82 517
16485 -1.5227154918727075 0.092703709874705637 3.334878800922537 174 133 78 1.7132441001832928 99 636 95 637 78 485 82 345
17809 9.3327747541323998 5.7858018487324019 -1.6464362860299735 170 156 146 0.51276333856595346 84 577 86 612 100 409
16486 -1.6988445788663611 0.055519678465920964 3.220897201886094 132 91 39 2.0727270451991378 99 942 95 640
20374 -0.37668548402278179 1.2867537363534198 1.3625719287193978 77 88 85 0.97065913896071587 125 137 128 114 126 134 119 130 132 148 123 173 121 178 135 213 136 268 139 218 143 238 133 225 141 241 142 244 127 266 130 288 140 315 129 304 137 175 131 314
16487 -1.7540417839384603 0.0082346117353685501 3.2791764269868202 145 98 45 1.7362736430034216 99 648 95 644 77 493 78 652
16488 -1.9098200730593748 0.079974724015788784 3.2537860000429384 137 95 44 1.8004070625637087 99 656 95 653 77 678
17304 0.12883075892587179 0.49789356725851386 3.6315226343075242 179 131 69 0.34125339811111943 93 825 79 801 82 1158
16489 4.5034414340200328 2.8160024526738265 0.6402921210323067 60 51 82 0.52515338711161152 90 627 95 660 77 612 78 495 93 510 75 491 79 511
16490 -0.86355726118915288 0.0026474961397475651 2.6375878539533839 94 95 97 0.49059160110018329 99 717 95 689
18330 7.2285137483263968 6.8891630665260886 -4.3738485097530777 55 43 31 0.36148549067099528 84 591 86 601 108 383
16491 -0.81198756684136297 -0.020836529612647096 2.7093417632311012 13 17 20 0.96114984681355753 99 785 95 690 77 774 78 734
17823 1.5764344675387705 0.95626566355417808 3.8759495796808987 136 84 24 0.35437867210771978 86 472 100 509 98 469
16492 -1.8129168625048089 1.5685492161014245 0.4120898555023077 95 124 112 1.2933254110484587 90 668 99 709 95 693
17308 -0.36025174392149367 0.44845329609853374 3.5958582337085785 165 111 51 0.28515948696730381 75 749 79 831 82 1026
16493 -0.93825103698683032 0.042072341947767336 2.7819824270023044 0 0 0 0.1628993281029375 71 570 88 554
17817 -1.0816626686457453 0.019353289337947829 3.4189452732634398 138 91 46 0.36078094219427992 86 343 100 479
16494 0.38672049094073979 0.36096163978272444 3.6915001677356423 127 165 161 1.3102957910310471 90 1007 99 700 95 702
16496 0.16584233996479231 0.23468000152602697 3.6739085892249572 134 91 57 1.5097889908654025 99 1622 95 718
17376 5.2531730425968792 2.8883521710192075 1.0963452078436349 69 65 88 0.36533493279491347 79 281 82 259 84 110 86 149 100 119
16497 -0.62982437953313319 0.30563826788590753 3.4771038721838528 189 137 80 1.8002015250978258 99 873 95 749 79 494
19949 0.097031213839206945 0.52430544048048677 2.9427206551423302 71 75 78 1.2597522460133466 118 176 107 333 112 220 113 453
16498 -2.1526805777821494 0.45172840905386058 1.9927512424462781 238 185 117 0.34337958200082297 99 665 95 751
18402 0.73195988230996167 11.561927241397809 -0.014479796292467362 35 11 8 2.2695632631525107 98 189 89 138
16499 -2.0802363612062731 0.50946579195949082 1.9813257707495511 249 193 129 0.75764592368298156 99 1154 95 756 93 703 82 912
16500 -0.32318630204946963 0.44641206993335159 3.5684867211697866 156 107 48 1.3456021083637582 99 1128 95 759 79 580 75 573 84 338 86 342 98 441
17380 -1.8405282599493598 -0.073080206093620356 3.210181816739972 154 110 61 0.75085629635569118 79 332 82 342 102 387 108 340
16501 -0.27712302640944053 0.48605215378327832 3.5624453497120099 193 143 84 0.9744557048029564 99 1126 95 761
17889 4.1186186036076684 3.5591664028707619 0.50852267738108203 175 148 120 1.7563130272780831 84 885 100 845 102 626
16502 -0.39251606291806629 0.21139835827832837 3.2409738973745523 76 95 99 2.2166208671454672 95 776 78 862
20454 -0.43816728673764599 1.2673294359110063 1.253534729383428 1 17 16 0.93925099648268451 114 203 126 136
16503 0.53556764412887581 0.27265920218815043 3.7552071007626791 138 164 151 1.385310588989368 99 896 95 783
19947 -0.38872771523290384 1.8891188207054828 0.30187318722647077 130 150 148 0.80232816003339413 101 484 122 198 109 254
16504 -1.9023087925495361 1.3684107084163981 0.63003940028334637 106 94 61 0.40680232524284093 99 843 95 786 77 793
17384 6.2815632020857173 3.3408691887002182 0.62737630580437176 117 115 120 0.3926063057886191 79 318 82 361
16505 -0.88527091607675712 0.049916030051959541 2.6810608832821257 32 37 41 2.0988793407281641 71 685 95 797 78 731
16506 -0.83478185082413303 -0.076027468199921899 2.7117294438296295 65 69 72 1.5175927618612735 99 520 95 804 77 775 78 608
18410 -0.57401910982138449 0.40679240470585931 3.5525261705426732 142 96 39 0.58676939443888931 108 209 89 185 92 204
16507 -0.37586186236733476 -0.10998893862279259 2.6577620757911604 71 76 79 0.092211778826111701 90 704 95 818 77 760
17388 7.7086259260736227 5.1253799044562776 -1.2201372267725747 147 146 152 1.2947201615441697 77 1091 82 392 86 375 100 259
16509 0.15019887474896723 0.62061284852316212 1.7134303493263436 39 34 34 1.6550395601735115 99 499 95 832
17897 7.1804736974573906 6.5491984413596684 -4.0125968368799407 82 73 105 0.96950750748576453 75 829 93 968 100 907
16510 -1.5913571484242606 0.059714396806177704 3.262222725193082 168 130 73 2.1423924753185282 99 635 95 852 77 699 78 483 75 411
16511 -1.6521261924831616 0.0010664036446349802 3.2364979078963034 152 121 67 0.66905852216023376 99 1131 95 853 77 700 79 554
17169 -0.074514420743205287 0.5184797808828645 3.6412253883341514 157 104 38 0.54077838041061776 93 843 75 822 79 819 82 956
16512 -1.2957353635545146 0.19383751247273243 3.3908063988329231 192 150 87 0.63913875328131609 90 934 95 855 77 829 78 917
16513 -1.4752103295503427 0.037663170111237834 3.2794321936465107 126 92 47 1.1866913182071712 99 996 95 859 77 950 78 897 82 550
18195 1.9204673838101145 11.279292666461759 0.57813212911308021 56 26 0 0.90117918799419006 98 319 102 346 103 278 108 224
16514 -1.3231118081993933 0.11740517716854725 3.3223192983512084 172 135 82 1.1204404165301565 99 900 95 863 78 681 75 404 79 394 82 464 84 477 98 440
17173 -0.12590855561287434 -0.061833012084117317 2.6065895270993313 110 97 73 2.3144630198961682 93 790 75 834
16516 -2.158209592903801 0.65764333830041666 1.693653355792043 210 156 92 0.19047866025532598 99 1129 95 877 77 1010
16517 -0.62658454698581079 0.30789739401624305 3.4626485669493712 135 94 30 1.8824831187582667 99 1390 95 893 77 886 75 570 79 578
16518 -0.58040104603428688 0.36598874605204357 3.4855969030440126 170 119 62 1.8427048313620074 99 1359 78 1012 95 898 75 748 79 639
16519 -0.97920568333587898 0.2468878855211401 3.4073185997674713 159 114 47 1.1082464757647066 99 1209 95 944 77 859 78 875 93 608
17177 -2.0872776143356346 0.0095112284573918224 2.6446785188436488 237 182 115 1.1623704451502048 93 380 79 96 82 108
16520 -1.0961479478135407 0.19547488646240355 3.3986835260918706 197 148 81 1.6084770031197064 99 1224 95 951 77 847 102 583
17694 4.8055077276282745 2.8438938076284699 0.89199453770140791 118 103 136 0.47421679240203218 84 557 86 586 98 503
16521 -2.1603596720266136 0.20715940027114491 2.4294894124503847 234 177 114 1.1307757989989149 99 982 95 955 77 1128
18203 2.026153870337438 11.648498576094182 0.52560089948329047 85 55 27 1.2352387751102671 98 423 103 342 108 264
16522 -1.6067109900154488 0.12222724335857468 3.328840656995355 173 132 77 1.145756385754829 99 1021 95 980 77 810 82 493
16523 -0.52611895978198364 0.020949903354757757 3.2654188439069141 28 41 42 1.4060668072456028 90 928 95 987 71 1083
19730 -0.30880958366306044 0.80117401662662324 1.3928890281147395 70 71 73 0.31665839867080325 146 439 134 383 145 514
16525 -0.73399801144932475 0.38997722285769432 1.8480536160809493 45 48 57 1.0980832561514535 71 949 99 802 95 1005
17692 4.2458808415777582 2.6963770313659148 0.81493603007201876 59 52 83 0.54986718454024552 84 470 86 583 100 435 98 396 102 381 103 291
16527 -0.86352437264653292 0.025238295019224845 2.6381729651351189 50 51 53 1.2233237798426151 99 1352 95 1021 75 854
17249 -0.47489027488570001 0.03952991698690099 3.5723952541570698 98 85 58 2.0860980908108759 78 564 79 360
16528 -0.45007532426967606 0.27142023817573063 1.8216842202799373 76 67 55 0.25846633022157062 99 1044 95 1044
16529 -0.33120222808350863 0.50416039231205467 1.6022723010354876 84 88 91 0.2371778807885461 99 1544 95 1045 77 1105
18275 2.5928856623579355 5.4427464558660104 -5.0132764177570301 118 99 82 2.0083581861689188 78 54 103 47 89 46 92 23 97 30 94 20 111 25
16530 -0.40425625417518662 0.3658247335888053 1.7315916666731246 96 89 61 1.150750340415267 99 772 95 1046 77 1104
17253 -1.5618666758420778 -0.18042330633081746 3.2734051119640366 109 145 135 0.91526467859787219 75 396 79 384
16532 -0.74987463502541807 0.47036708640908415 1.7477936526693809 32 38 53 0.3114601905972697 99 1504 95 1064
16533 -0.41476555840127716 -0.099988672432190145 2.7237700150552775 106 112 112 0.028246575691124428 90 1176 95 1067
20327 -0.50860840561519782 1.2716900341391157 1.2649127047324242 131 160 155 0.77660433320955002 117 284 125 334 121 363
16534 -0.82155391939840683 0.021162422319515411 2.542220296936176 68 69 73 0.38542810640158626 99 1479 95 1118 77 1310 78 1240
17764 -0.77772801168746175 0.37361345238759625 3.4534729558665296 169 113 54 0.30539276442433727 86 137 100 142 98 187
16535 -0.64675860325318513 0.34191530595046044 1.808816876180606 0 0 0 2.0481318714719174 68 675 90 951
17257 2.3883932740237386 5.6188146491061621 -4.518397804490303 31 21 12 1.5113157149976699 79 444 82 414 84 469 86 437 103 289 89 242
16536 -2.557710095426883 0.13105912436284792 2.3203039940608092 187 156 117 1.6288218078484331 99 1288 95 1164 77 1136
17774 -1.717315712215163 -0.064315402801535512 3.4450078624037697 159 105 52 0.94932148051699072 84 190 98 183
16537 -2.4383677389941791 0.23340656784307304 2.2037599534915584 70 72 87 0.53084192775693728 90 1164 95 1175 77 1163
18283 3.1839851741125806 6.0127196458130259 -4.6063709282477685 13 9 8 0.68456750921719378 89 60 92 55 108 67 97 48 91 48 94 43 111 38
16538 -2.2890586323343767 0.22126055359536004 2.2928443505714995 40 42 57 0.24991192886443611 99 1248 95 1186 77 1150
19816 -0.44386078445761235 2.4677410233705093 -0.3806644226657272 237 202 148 0.49335974836616392 96 339 120 214
16539 -0.94216973366751577 0.29937745121362669 3.4554332224620565 154 109 42 1.8181107005828441 90 858 95 1189 77 1158 79 847 100 532
17261 -0.78794785161206238 0.024539323822590189 2.6638623292470349 56 58 57 1.0441873817822183 75 466 79 466
16540 -1.1073164158230895 0.18851585062718515 3.3902463315690987 162 114 50 0.82965157101331699 99 1227 95 1192 78 884 93 890 77 927 75 675 79 561 82 709
17718 -2.2804982705995598 2.0569973003056012 -0.65832702536221588 255 221 169 0.61209382738541795 84 787 86 748 100 754
17360 7.3166027815595243 5.5761802613944198 -3.0827934844376483 125 115 113 1.7968728852993137 75 135 79 110 93 137 82 93 84 81 100 56
16545 -2.0699353760839463 0.48242249691645889 2.0172123434080622 223 164 94 1.3847672313061792 72 417 81 548 74 397 88 524 80 535 71 477 95 588 68 630 90 572 99 667
19933 0.10192173989951207 0.24902224040091506 2.2474263489823567 45 48 49 1.4509536482500656 109 81 118 144 122 262 117 303 125 293 124 307
18227 -0.84591404211934451 0.17209854770736435 3.4371948304596489 132 86 38 1.3804235647837324 102 520 103 540 92 562 89 449
16546 -2.0438268256934555 0.51412621877125619 1.9912874462014476 139 106 67 1.2242934168407718 68 151 99 353 95 415 71 385 90 356 77 341 78 569 93 477
18386 -1.9766612067118086 0.44149764395129554 3.3385894518414703 151 134 118 0.84781479342283705 108 10 89 14
16547 -0.19302126992764787 0.59129141835424925 1.5807874347008857 64 76 73 2.0179743902014704 80 631 68 710 71 899 95 1043 90 1356 99 1545
17879 2.3485808053838673 1.3254591685720667 3.1521058204064256 228 188 145 0.73702885957042119 86 626 100 787 98 784
17205 -0.15699447650268275 2.0001921603493411 -0.19815522526028345 57 59 50 1.9331394795624901 75 99 79 73 82 77
16548 -1.8499314675563843 -0.14858389315733617 3.1469214221038277 81 108 105 1.8837027243560325 71 409 95 520 72 409 80 409 99 376 75 346 93 306 98 447 92 354 97 314
20279 0.40864450892104387 1.038804285185537 1.4658208960155592 7 13 9 0.28313646313595897 125 86 128 86
17873 -0.35102477096413481 -0.092396256466004564 2.6304356053506019 99 99 91 0.80901590842820148 82 829 100 749 102 630 103 638 108 764 89 669 92 666
16550 10.679644867929687 13.307344784870589 6.8571863589680149 56 56 68 0.57788429480803394 90 166 99 180 95 161 77 166 78 133
17716 4.313284390170713 3.4702474660120024 0.99186623490546422 141 107 80 2.0085424989900127 82 836 86 733 100 738
16551 -1.4555623971464047 1.9088540799152367 0.34901941538390358 99 133 132 2.0548659701880077 99 2 95 4
19931 0.0053602633815904204 0.21968071364363789 2.1638443640376646 40 38 39 0.65091726171833786 109 118 118 139 117 328 122 241
17209 6.574411735652915 6.2190831096304562 -4.3942248744460635 8 6 7 1.0343680391091215 75 168 93 148 79 107 82 94 84 79 86 79 100 96 98 84 108 49 102 58
16552 -0.37070504114605929 1.1574234355899189 0.94975323289591951 234 183 117 1.3591796409574808 95 11 77 9 78 11 93 8 75 14
17726 4.3552809469715328 4.5293569755683034 -0.99792402960979376 95 71 40 0.24886748301143391 84 733 86 822 100 720
17368 7.1456317057541101 5.2989723777139135 -3.2587589237525978 129 116 113 1.5755480501681602 75 211 79 232 82 203 84 153 86 155
16553 5.1594747542313044 6.5652019257453347 -4.1657678633668516 66 64 60 1.5703955443921973 99 91 95 67 77 81 78 58 93 57 75 49 79 60 82 44
18394 0.18900450649234501 0.56061309538918747 1.9463575006062677 66 69 76 0.15211109414582458 108 138 89 93
16555 4.9907307800072811 6.0205251694658433 -3.5532667491089507 153 134 119 1.7661527377191455 71 153 95 141 77 139 90 154 78 117 93 165 75 196
16556 1.7461509718072352 5.1807227305207304 -3.7255481083959201 73 75 79 1.6514893197536928 71 119 90 152 99 246 95 232 77 237 78 282 93 176 75 207 82 147 84 185 79 199 86 202 100 168 98 167 102 204 103 159
17372 8.5838296606594984 4.9840347691934594 -0.65446084908552493 194 194 186 2.3191263580340569 75 329 82 217 86 160
16557 -0.56487754927453182 0.42167368891398865 1.774791162695097 65 77 115 1.0168717407702461 99 505 95 449 77 541 78 360
17881 2.7054264976425682 2.698326921653551 1.3074008320802897 220 172 115 1.6918797865564705 86 782 100 792 98 778
16558 -1.0747669143863987 -0.30122253770266766 2.6642747687173438 91 95 96 2.6096926338359521 90 1395 95 459
17724 -0.80793717455793446 2.8327919646983091 -1.4897395111775862 150 104 61 0.93068132160363104 84 652 86 802
16559 -1.9956925511438812 0.63253717446473279 1.7468637723820739 131 148 132 0.10422583170743663 90 498 77 767
17153 -0.70633984476356493 -0.045230086912000693 2.5036537175764311 32 34 31 0.46561253830221055 78 743 75 719
16560 -0.016273636248303313 0.55971811478232392 2.23378306642836 0 0 0 0.73009522222846557 68 515 99 800
17670 1.1807605442324234 0.78533185670137506 3.8513602345546225 150 95 36 0.18179094980722169 84 497 86 468 100 500 98 463
16561 -0.25926573509098766 0.42955622285174422 2.3011857089492307 157 163 163 0.93542052295215683 95 683 88 140
18179 -0.95018953167264408 0.42138700903996229 1.7424557050230278 131 156 138 1.2760195249450101 82 116 103 177
16562 -0.032611318050933785 0.053160332497916969 2.630736787260016 216 179 127 0.11093974584003752 95 824 77 792
16565 -0.40039453478595477 0.2153078592541956 2.9503701913619218 102 108 111 1.7849072898537472 95 19 78 13 77 16 93 9
20231 -3.6396402987760523 2.0676831221740066 -0.63839612797771927 236 191 125 2.7637116313133943 114 183 124 208
16566 -0.15018556669229599 0.26384590982711148 3.1325917920641739 44 48 51 0.28743742672629075 77 24 78 19
16567 1.2671046073720276 5.4002349543191492 -4.1163461837653781 59 45 25 0.55751414743209182 95 29 99 28 77 25
17161 -0.64930416476645381 0.09140260690854804 2.2361984930222136 46 50 62 1.8436902011352199 78 359 75 780 79 886
16568 5.4482982110036549 3.7594841500433089 -0.10250663766946078 49 39 73 1.5186329583200917 95 37 77 31 78 30 93 25
18187 -1.6554224499787198 1.0709533311452955 2.9206147829992788 135 119 96 0.89102963685988856 102 429 103 213 108 220
16570 7.3345634192210749 7.3568762983184213 -4.1251184667077263 11 11 6 0.85218477434633633 95 49 99 55 77 48 78 46 93 43 75 39 79 45 82 36 84 30 86 38 102 27 103 26
19720 0.18415493073145714 0.49688710252311685 2.1896721052298211 44 36 28 0.78735365106605271 146 345 134 273 145 289
16571 12.213106335395127 14.223719312931538 7.7754266335201212 96 97 102 0.50550101521237645 90 46 95 51 99 69 77 53
16573 5.7031175443213575 2.6062057142592243 2.625981926403326 158 112 88 0.52210392307675313 90 81 99 88 77 61
16574 -0.51997097660233127 0.78253804515048064 1.5064766451791243 18 23 26 0.36811094905267089 95 52 77 63
17676 4.2857680539358096 2.6977659428686889 0.93486099204937367 78 70 107 1.1295184737171877 84 715 86 499 100 441 98 706 102 477 103 502 100 883
16575 12.974352987956912 14.281536090932645 8.3424842831908279 56 57 52 0.78481135826372483 90 110 95 81 99 119 77 74
17958 0.1514685406263348 0.33060555419904902 2.2750493517287786 61 43 42 1.0852485157726883 100 319 98 366 102 219
17233 8.8549581673243161 5.5118776159903407 -1.5185706944077975 176 172 163 0.29189499003499308 75 245 93 281 79 272
16576 0.40529826976188971 4.3042020188662775 -4.0227028387218109 12 4 5 1.2461003766073058 95 64 77 80 78 90 108 79 89 78 92 50
18983 0.1104552196736438 -0.10337163506621894 2.4534953331707916 95 94 108 1.2126807636384769 111 122 105 309
17750 -0.98494586398290318 0.33388596136601389 3.4486705277890848 200 140 77 1.7480593889458205 84 10 100 19
16577 2.7298190558447351 4.9026884711676244 -3.1321777820293595 38 34 31 0.18090176591333229 95 69 77 83
18259 -2.2014147608705739 0.7270977716247482 1.7636848244492198 129 152 142 0.070429170811154573 98 275 89 85
16579 -0.7218781154753906 -0.55209346834136763 2.1087812526643219 20 14 14 1.1255831147600066 71 72 77 88
17237 -1.5390839534021032 -0.10797693237898066 3.2828313961258933 111 97 63 1.2933458411068968 75 352 95 375 79 286
16580 6.8023893963574595 3.2940697537259704 1.016895728040649 75 75 101 1.2531606759048852 95 129 77 91 78 85 93 78 75 101
16581 2.5773292652816515 5.3248743767314037 -4.855330248018662 126 109 91 1.1626765158120647 75 62 82 41 84 51 100 54 98 31 102 47 108 37
17957 -2.2080470920628676 2.2508590247974083 -1.5453309160022728 125 109 93 0.97923732680104625 86 316 98 362 102 363 89 257 92 285 97 282 91 224
17748 0.062318821973883096 1.0810755154421334 2.5211045958500433 36 38 37 0.64827260025244793 79 15 100 4
16583 2.0536231029595897 3.4520807069165231 -1.5977912358048716 36 35 33 2.6103544747568499 90 437 77 99
17966 0.053134357243244487 0.18678434444418052 2.4492717479292403 128 130 125 1.4718637215824071 100 736 98 408 102 367
17241 -1.5224300173045116 0.087373746466576321 3.3398968267403082 183 131 72 0.86145401160146884 93 311 79 331
16584 -0.37952390681982845 17.759042069024616 -4.6394828181967185 210 146 77 0.094005246580143142 90 436 77 102
17758 -1.0719263548659554 0.19381776692376879 3.4178696622141129 199 144 78 1.8758159236722063 82 65 86 78 100 88
16585 -2.4524635273384794 -0.099130595007419997 2.7716372188710681 229 172 105 0.88718005343317663 95 83 77 105
18984 -0.27511619826397754 -0.12660361710705484 2.7093126743999467 54 54 52 0.15220625305830598 111 146 105 316
18267 0.95250367388415158 11.609888816539632 -0.33516444778685445 28 8 1 1.4931932394039393 102 22 103 13 108 13
16586 -0.00090623326656927587 0.13344641968856355 2.5032174346954861 74 80 80 0.94102663917360363 71 43 77 113
16587 -1.6440125601288595 -0.039135083876485587 3.2326915096857638 124 91 49 0.91462142909087352 99 205 77 116 78 77
20002 -2.4304798671921448 2.4106307055558998 -1.4423875708657725 39 34 30 1.5100896883551773 109 28 118 38 120 34 107 55 110 69 112 59 106 32 114 23 122 24 117 32 124 22 104 33 125 27 128 24 126 33 119 26
17245 -1.3112686269077063 -0.11081910804815906 3.3092600230175142 140 182 170 2.49634769429451 75 416 79 349 82 526
16588 0.22347914883009651 2.4083661197342598 -0.42701900762637068 227 171 95 0.87633609781338384 99 85 75 141
19794 -0.18899538751432607 1.3222814004660495 1.8617286762996423 53 84 86 1.1094747145412591 110 94 120 71 106 69 114 68
16589 -0.11419484805321219 0.95970396577667871 1.1845471735202908 229 180 114 1.4504225154718462 90 24 77 126
16590 0.40678663075929072 4.8608418541206762 -4.5390532757596196 111 99 85 1.4470158747502049 95 93 77 135 78 112 103 72 108 82 89 80 92 95 97 96 91 90 94 76 111 80 105 132 115 96
17965 0.068266067678452433 0.20060090928384744 2.4119650567040969 47 50 69 0.70865998094140559 100 533 98 407 103 298 89 396 92 423
17756 0.17702873012038797 0.2949767811525606 2.2091553301361078 229 173 99 1.6784280348703191 79 224 100 75 98 75
16591 2.9096567493213632 5.6257703550899771 -4.6493303171232663 10 9 5 0.60023766552476021 95 144 99 129 77 142 78 123 93 127 75 122 79 118 82 118 84 75 86 101 100 100 98 79
17313 -0.85726065917379379 0.34373652969204999 3.4721411061383414 194 140 80 0.32011270908052847 75 756 79 845
16592 5.762662203434715 6.4564604846562004 -4.152253006624143 135 117 94 2.156171115030999 95 221 99 233 77 144 78 124 93 128 79 97 108 31
18999 -0.9107969729584855 0.0413702648233212 2.8467052034059446 59 69 55 1.2376122960510185 91 303 105 426
16593 3.9200273258507816 6.2490967403110824 -5.11915289919106 24 19 16 1.5171463372665774 95 148 99 166 77 145 78 127 93 131 75 124 79 115 82 98 84 76 86 102 100 99 98 81 102 108 103 85 108 78 89 79 97 92 92 70 91 62
16594 7.3825360666589628 5.1397050718470547 -1.270253677274771 43 43 45 1.775740365868121 95 220 77 146 99 167 78 253 93 225 75 224 82 222 86 170 100 117
16595 4.1830953831897473 6.2169311330543824 -5.0722777581439296 26 23 18 1.3584981552099356 95 151 99 182 77 147 78 129 93 134 75 129 79 112 82 96 84 78 86 145 100 98 98 83 102 106 103 91 108 76 89 76 92 69 97 81 91 63 94 40
17317 -0.29230867448047115 0.31639702833094091 1.830584779734955 41 48 66 1.8639000617293369 77 619 79 856
16596 -1.2073882146312456 0.15181648615682691 3.3893643889730174 190 145 77 1.0277231006141159 95 164 77 157 79 142
16597 -2.1043098295288347 0.17453158404970762 2.5140964581754353 239 185 120 1.6934532441658472 95 169 99 188 77 161 78 75 93 59
20391 -0.25392324715873377 2.6015135739274666 -0.41449915345049404 228 192 144 0.43966132245526995 125 228 128 203
18996 -0.27404484417477426 0.81344735977891613 1.4240468115946656 30 41 37 2.1858186010599874 94 717 105 417 113 599
16598 -2.3564519909536767 0.33411865247960909 2.0738822637129037 135 133 146 0.53584318768350725 99 134 77 195
17973 -0.6513074324936543 0.11112334736230449 3.4719582768272286 105 94 66 0.27339117396686852 84 482 102 308
17828 -0.8588160913853673 0.23695651450617983 3.4278850222520463 184 126 76 0.35124274924355053 77 866 82 536 100 546
16599 -1.0390137751024608 0.30205716826806123 3.458667030474452 189 144 76 1.082424476525871 95 195 77 204 82 100
17982 2.3007242277318078 1.7035823551364329 2.4901108198664708 0 0 0 1.8642417723564113 75 463 86 521
17321 0.040294449743068478 0.11529746279450399 2.4895422095811082 218 184 129 1.4820309846460711 78 588 79 872 82 875
16600 10.44634923289488 13.031290520118109 6.0512666118320038 37 36 31 0.5698357869998768 95 202 99 204 77 207 78 180 93 208
17838 -0.029109714555918913 0.1255840607333974 2.8350401239371208 56 58 57 0.42915995556901032 86 520 98 780
16601 12.027953787953727 13.949913024685552 7.2637906128063054 0 11 32 0.35887024396612321 90 301 95 204 99 206 77 208 78 181
19000 -0.018303495352783385 2.6034863516487703 -0.99566495518738063 74 48 26 0.87630074560385973 91 507 111 498 105 427
16602 2.2276742529396962 5.4546869709048424 -5.0598548187069499 111 97 84 1.4689230844955763 95 212 77 222 78 204 93 156 75 192 79 186 82 220 84 170 100 148 98 153 102 157 103 146 108 127 89 148 92 139 97 95 91 88 94 94 105 131 86 210 111 79
20025 -0.048208251542632301 1.0187139909540202 2.3913339995036789 4 12 14 1.1355997650974157 114 122 122 220
16603 6.7753794966042502 5.1449363669810584 -1.4426064853033402 157 141 127 0.66174436096386136 95 223 77 226 99 283
17325 0.65871966708525242 0.69423652788484114 3.7367660469264958 134 76 25 0.91036150112929615 93 994 79 898 82 1088 100 762 102 770 108 668
16604 5.4892087841252488 2.9527898704896507 1.0919325739049093 56 49 82 0.89722353479343453 95 224 77 227 78 120 93 126 75 120 79 121 82 121 84 73
16605 6.4886001611361293 2.8386512713994496 2.1821347385778487 58 53 73 0.6360923441611217 95 273 77 229 78 263 93 262
17981 -0.85120626088492946 0.34342871654838936 1.8673093405026833 150 152 123 0.59278252359986028 86 768 98 533
16607 2.3912322607567886 1.1219446560660522 3.617493777524043 122 151 150 0.96496278803604529 78 190 93 357
17265 -0.80996630368920541 -0.028781008023301417 2.5268356243957677 47 51 52 1.2291881637164186 75 531 79 539
16608 3.3939142602425889 5.9965730255656471 -4.8053210907072783 88 78 69 1.2297130023922533 95 267 99 287 77 258 78 255 93 275 75 227 79 278 82 225 84 173 86 148 100 112 98 136 103 103 97 90 91 64
16609 7.2121038400372317 6.764513065526824 -3.4879536660034201 109 82 61 1.0013505601027419 95 266 99 286 77 259 93 273 82 227
16610 4.6152056287920189 2.6634156280582042 1.1546971069726533 220 222 237 0.58343621459663575 90 249 77 263 93 269 75 231 79 210
16611 0.63086073514373819 5.0334924237754493 -4.7098708903157487 12 7 3 1.8263596361480692 95 277 77 267 78 514 86 176 100 391 102 256
17269 -1.149214644283989 0.25903508629766298 3.3989087721656563 160 106 44 1.8859087238464345 75 556 79 556 82 704 98 599 102 591 103 591 92 590 97 546 91 445 89 709
16612 11.446014201600979 13.67056314372423 7.2388636103104789 83 113 130 0.090483851446006 90 298 77 280
20343 -2.0523745040256198 1.4812838781938167 0.3928048114228247 246 189 126 0.3354206906289573 124 251 125 411 128 295 126 404
16614 -1.1819765467268735 0.16873508193754844 3.3324898211842928 172 128 63 1.4755069836974934 95 369 78 192
16615 -0.36993096761361177 0.10013399811052758 3.288105412714216 121 157 153 0.63022574121439479 90 673 77 318
17273 3.9475415611288263 2.0345224784905462 2.3220670910191417 206 190 177 1.1184481462834639 77 514 78 581 79 582 82 610 86 547
16616 -0.92473828560274318 0.65127858489248913 1.6941546151622189 0 2 0 1.4172775337979562 95 328 77 324 93 354
16617 -0.99608444483113512 0.4804150495477239 1.7820659905819509 37 46 45 1.1218656852069806 95 457 78 357
18299 0.75842397471494027 3.8020194933043325 -2.0059011312092987 178 142 94 1.358070321201776 102 220 103 167 108 174 89 212 97 209 91 226
16618 -0.80575036935690358 -0.044512128713378687 2.500091305567699 79 83 84 1.7716813838687102 95 342 77 327
16619 0.54762831454005678 4.7449556472924233 -4.2718997266238361 36 35 30 2.1001492527830901 95 341 77 336 78 416
17277 -0.071825166533865989 0.25534247181513398 3.6323968823915322 119 78 22 0.97044016809842737 75 594 82 681
16620 5.1050441008775627 3.0254042900233005 0.6556177928092618 52 46 82 1.0881923195656193 95 422 77 369 78 496 93 327 75 323 82 226 79 171 86 215 100 263
19826 0.23756714380202307 0.42926650607397399 2.9054627232061931 74 77 82 1.505080341341805 101 541 120 267
16621 4.7263830341350994 2.9049649109185145 0.62524701177189879 48 39 70 0.40339115977479856 95 424 77 370 78 384 93 328 75 322 79 279
16622 4.8615329585220515 6.4121281834642208 -4.0476320105463977 112 103 99 1.3019246076604902 95 429 99 461 77 377
17788 0.70392690396274504 0.82543627224801064 3.7347483396453121 182 126 67 0.022037618688317502 86 281 100 298
16623 0.98824798342895859 3.9706889516208959 -1.9191291928046184 0 0 0 0.92801923899069072 95 98 99 154 90 117
16624 -1.5665470288544188 0.032049837713718873 3.2797852707751503 180 130 76 0.14920824683426304 90 531 77 386
17734 4.4476733837186773 2.9223393032729179 0.36968036883291194 182 174 195 0.71080297945004756 84 829 86 870 98 714 102 668 103 670
16625 -2.0350705594015097 -0.11598658007731079 3.1589121550892569 162 118 69 0.53337251223087123 95 402 82 351
18243 0.14092046773107253 0.28417276667427221 2.3054828559377167 87 88 95 2.1990640165577391 102 624 89 308 108 400 97 187 91 106 111 120 105 77 115 171 113 90 103 696
16626 -1.919676130520612 -0.018254940171258262 3.198249217600782 144 92 42 2.2455937700106672 99 478 77 406 82 187 84 136
16627 -1.8195509442020084 0.022361936566023359 3.2600748991473516 142 98 49 1.2409627140847705 99 469 77 407 82 263
17221 0.75996847922211597 3.792862281741836 -1.8515141764040262 47 33 7 0.15928786757169844 75 146 79 207 82 242
16628 -2.5483882597924574 -1.6930802080077307 3.5184759030530652 81 80 50 0.28321767259310132 99 322 77 414
20295 -1.9383050065637186 1.2183923181097673 0.80988073733570598 251 182 113 0.95580833525272002 117 245 125 153
16630 -2.0617449766740266 -0.0022221656913211608 2.7713301437174924 73 110 92 1.5316997186032415 99 383 77 425
17732 4.3626089367212426 2.8503070270452735 0.56998638123332812 105 94 127 1.4347194025284979 84 841 86 860 100 806 100 894 98 698
16631 -1.404063571552252 0.056091399652137247 3.2984521491892704 141 89 41 1.9494333958267243 95 864 77 428 78 328 93 233 75 248 82 279
17225 -0.60913874774840904 0.30394462593483973 1.9995601723629597 78 76 97 1.3834580070351556 75 145 79 231 82 154 84 310
16632 -1.4383346813322542 -0.093966107117964534 3.3445821108848395 142 99 48 1.7204732544946113 99 551 78 286
16633 -1.3570711513886864 0.087903731749486944 3.3004652574355706 148 102 53 0.93126004599131706 95 865 82 272 98 201
18251 -0.4148702293315007 -0.10485531345125569 2.6660658301231099 113 114 108 0.71517557490212502 98 610 92 693 97 619 94 653 111 522
16634 4.8843945783545886 2.93761369222445 0.58665721146659833 107 96 128 0.58242937197694955 95 420 77 445 78 385 93 325 75 431 79 417 82 349 84 244 86 377
19784 0.01080588351045899 0.32245499386115656 2.4087381372636441 1 2 4 1.3340710903470998 110 24 120 8 109 8 118 10 104 17
16635 -2.2283997940228715 0.36648362514478389 2.0880409176123385 159 136 137 0.61543971919518303 99 415 77 450 78 299
16636 -1.9959475096197536 0.37238680038011235 2.2568833170830458 85 114 107 2.9730244441017328 71 387 77 451
17740 -1.4162208447427744 4.7003681991764426 -4.8156676426147618 172 137 95 2.1786440557185336 84 626 86 560 92 404 91 217 115 245 116 271 113 398
16639 -1.7117001668153837 -0.036199441313769364 3.1575828587403083 95 133 121 1.3268597478634483 95 513 77 475
16640 -1.5249181849540281 0.070485104763133674 3.2997954460311352 148 107 53 1.5261829936849944 95 634 77 480 78 480 79 335 75 342 82 341 102 327 89 327
17072 6.227108633062242 6.4808107282973975 -4.4030865706636932 112 94 80 1.1591195868343132 78 392 93 278 75 281 79 274 82 276 84 165 86 277 100 255 98 150 102 158 103 147 108 162 89 149
16641 -1.4322042907477965 0.1314984535794953 3.3447451059194719 194 144 83 1.3735437352330273 95 519 77 481 78 482
19645 2.5116829988963061 2.0385632277725598 2.1574338414204686 117 108 69 0.70693559326597122 101 211 107 187 112 115
16642 -1.5749998797509015 0.12696008492886862 3.3100572700062396 182 134 70 2.1403378805455162 99 640 82 350
18098 4.2997984790670278 6.9706554359972026 -4.9419228726280311 0 0 0 1.3882459625314034 84 857 98 728
16643 -1.7471671715624291 0.16229142832289511 3.1724916963797729 131 89 39 2.7410560574409755 95 643 77 488
16644 -1.9855668631098109 -0.15871531447415591 3.1490175294886926 151 111 61 0.95196860113314108 95 533 77 491 82 482
17076 -0.73190103130763917 0.18294840994474959 2.5629830817953771 11 13 10 0.22735367220660985 93 109 75 291
16645 -2.0530457744085568 -0.099108495180932316 3.1654172233451638 134 91 40 0.3712970886442169 95 404 77 504 82 352
17585 1.2055689627141191 0.45142377730979111 3.9135519711842615 137 162 142 1.5188325452973583 93 550 82 627
16646 -2.2363745880583257 -0.19159725294720464 3.1300964377088838 161 119 69 1.7077566295121693 99 482 77 513
20150 0.11829799960567514 0.47871185857253606 2.9502658568217814 86 90 93 0.68587459461624611 114 125 122 216 117 237
16647 1.4356395773517729 0.8008467995773676 3.8345710403760109 131 166 147 0.28721538688129955 78 612 93 553
16648 -2.0256320064996389 0.48236698916052256 2.0327325553958175 106 93 56 0.73945457415049187 71 384 77 516 68 378
17080 5.5524458154459264 2.893463025872252 1.3360783005541166 222 221 238 0.77959987439217981 95 269 75 317 79 441 82 415
16649 11.933487236787801 13.7314135505314 7.0854974786599421 59 77 99 0.80361629066253204 95 522 99 566 77 517 78 411
16650 -2.0023563612967856 -0.090017303167693907 3.1734247199471581 140 93 43 0.21494461666297054 99 586 78 397
18106 -1.6619186009252367 0.51295813879169394 2.8703026272977366 141 94 48 0.8762676803789643 75 351 102 562
16651 -0.80354255147208109 0.47083598324937592 1.7445445758341283 4 11 17 0.016440518836345321 68 268 77 547
17599 -1.2678236545638242 6.5319280644432158 -7.1278315685769167 172 128 81 2.0423759479271624 82 84 98 65 102 75
16652 -0.86426214161489601 0.5371450219945153 1.7193797205642163 14 18 19 2.0194961645801071 99 724 78 744 93 573 77 550
17084 -0.94403823939642328 0.082653617600522325 3.3339176662676566 144 186 176 1.9666848062739306 93 373 75 339 82 662 98 465
16653 0.70835339357453186 0.72708592540048123 3.7875651293701926 155 108 64 0.084612470632302386 99 1110 77 566 78 350
16655 5.5239682539539769 2.3325314253903611 2.463628006421259 83 73 97 1.8188626599730735 99 748 77 615 90 447 71 424 78 518 93 409
16656 3.8112441508389696 3.0546126360974695 0.81200837986844576 155 130 110 1.5151885911514436 95 655 77 618 78 580 102 473 90 642 108 402
16657 -0.30396500661327047 0.60411341816019593 1.9243489287430973 65 73 79 1.2931138358454755 71 624 77 631
18050 -1.820149797008394 0.084509166540067709 2.3963370373051864 242 187 121 1.5838521909972467 98 622 102 141
16659 -0.80417529706357205 -0.068751610715666364 2.6775466445664362 26 31 34 2.3691596463108144 95 461 77 644 78 736 93 734
17543 5.2097370350080485 3.0379753837636083 0.70644749737999746 67 51 77 1.0201454366104854 82 407 84 462 86 431 100 383
16660 -0.93914285882243531 0.064007411515803789 2.7586248829210649 24 30 31 0.67227997880186108 90 761 77 656 78 858 99 1107
17028 -2.0100672924269274 0.60535925229646792 1.8348637805937456 134 113 77 0.80589876252986414 93 714 75 859
16661 -0.92377575978398796 0.090885945428193657 2.8013479500840863 26 26 28 1.6418766130280469 99 1034 77 659 78 475
17537 -0.97890659226297805 4.6269693292751164 -4.8637475569884661 105 81 43 0.80649605129879409 79 308 82 375 84 400 100 396 98 226 102 258 103 263 108 231 89 204 92 228 97 236 91 212
16662 -1.5726123548294495 0.13467119330589516 3.3239292070034034 147 98 39 0.30937627755007169 95 842 77 693
20102 -0.43082729629436584 1.3056168401001313 1.3252619396577139 35 51 51 1.415675035776131 114 338 118 214 122 210 117 154 124 413 126 322
16663 -1.585661529304885 0.027416378589931484 3.2617448966469631 143 97 38 0.44023560304968418 99 927 77 702 93 462
19595 1.7588764162599035 3.1997753607639368 -0.085896106793727875 237 189 127 0.23908842497568739 101 335 110 272
16664 -1.6124115917802084 0.0051734666028213777 3.2498329185409105 159 120 61 0.74625472143476212 77 703 78 477 93 490 75 409
17032 0.7963646927768171 1.7092501342035458 0.79684639552161152 76 80 79 0.51647059291966424 93 22 79 23
16665 -1.4555306333320535 0.10659064675505231 3.3311160051827771 159 107 47 0.83216764493060447 95 854 93 525 77 955
16666 -1.3531947414882548 0.17231246800502661 3.3706730807902692 168 117 56 0.20875311838988592 95 628 77 706
18058 -1.5526902975345032 0.7723974964083119 3.0393608681031501 179 150 120 2.1621351636092112 98 251 102 200 103 215 108 312 89 250 92 679
16667 -1.5865173500343566 0.010580318586717751 3.2667987781441914 150 101 45 1.6489253608135119 95 629 78 479 103 541
16668 -1.4260909554400711 0.102730928034391 3.3256755926996093 183 132 75 1.8104720761686566 99 916 77 709 93 413 82 478 102 328
17036 -1.6815634237595964 -0.18725849404551731 3.2798077768124463 134 95 52 0.94153856989361606 93 84 82 358
16669 -1.4193386387166624 0.093878186923137041 3.3009603800861336 169 128 76 0.64086901872529534 77 712 79 396 82 467
17545 1.1153480462877696 0.79095683857339494 3.8092199437061947 164 112 55 0.90273331874235396 75 739 84 496 86 469 100 501
16670 -1.4242622170388795 0.051240375096398533 3.3177289206259117 177 129 75 0.86196840529240593 77 714 75 407
16671 -2.0924146130533146 0.3130800220192998 2.3156213525764131 217 153 89 0.7718253085305149 95 363 77 727
16672 -2.0297653195533307 0.40051930497376848 2.1235079561635981 127 144 128 0.7376375004331539 90 549 77 739
16976 0.69812117117710382 0.63652043452563389 3.7727481088282677 139 91 37 0.1739932445025571 78 850 93 721
16673 -1.9747314959495086 0.84848070108454932 1.4513332167061905 81 70 37 0.20235632818562074 99 527 77 758 78 631
20428 -4.929096186703406 3.0000136018037451 -3.2025499921376457 223 213 196 0.61716731467593622 124 273 128 264
19549 -0.1213158268322671 0.4566736419573808 2.85923667909073 65 69 72 0.88761103855475332 113 665 101 539
16674 -0.87816641556642561 0.035229809079598155 2.6609580478375188 41 46 49 0.58066104224934201 90 1000 77 769 78 959
19405 -0.21827823820517647 0.13923132364843263 2.1066347830685506 142 140 125 1.7051313438388946 113 582 96 446 107 389
18002 3.8105146654098463 4.050849141503611 -0.49286555880017335 102 95 85 0.98549835392136842 84 875 100 861 98 760
16675 -0.62740697798781297 0.027414628162293848 2.3361180833320132 66 70 71 2.2833058482393214 95 678 77 784 78 756
19398 -0.31894595188046071 0.85410314910970908 1.3709819188354575 234 204 147 1.9847906862893951 115 414 96 368 107 155 110 65 110 387 112 78 112 292 120 27 109 38 106 30 106 50
16676 -0.39819090518890249 -0.11250247538978933 2.6438585584521759 86 91 94 0.60904253658680485 95 817 77 787 78 941 93 757 75 710
18375 -0.36411857491037924 -0.09542609240745685 2.6235992844546034 116 115 110 0.78605686767453131 103 637 108 765 89 400 92 450
16980 -0.70406345205367371 0.096826640795515229 2.2558667158630294 75 84 91 0.22993619395407727 93 751 75 523
